40.463343 26.737668 86.660467
38.355276 26.737668 84.979340
36.391247 26.737668 83.131984
34.584332 26.737668 81.130676
32.946553 26.737668 78.988753
31.488810 26.737668 76.720469
30.220807 26.737668 74.340902
29.150978 26.737668 71.865909
28.286442 26.737668 69.311932
27.632959 26.737668 66.696003
27.194869 26.737668 64.035505
26.975095 26.737668 61.348159
26.975095 26.737668 58.651835
27.194869 26.737668 55.964489
27.632959 26.737668 53.303994
28.286442 26.737668 50.688062
29.150978 26.737668 48.134096
30.220807 26.737668 45.659095
31.488810 26.737668 43.279532
32.946553 26.737668 41.011240
34.584332 26.737668 38.869321
36.391247 26.737668 36.868013
38.355276 26.737668 35.020657
40.463343 26.737668 33.339523
42.701423 26.737668 31.835817
45.054626 26.737668 30.519536
47.507290 26.737668 29.399443
50.043087 26.737668 28.482992
52.645147 26.737668 27.776282
55.296149 26.737668 27.284015
57.978459 26.737668 27.009469
60.674220 26.737668 26.954465
63.365497 26.737668 27.119379
66.034369 26.737668 27.503103
68.663090 26.737668 28.103091
71.234159 26.737668 28.915349
73.730469 26.737668 29.934470
76.135397 26.737668 31.153670
78.432955 26.737668 32.564837
80.607839 26.737668 34.158584
82.645588 26.737668 35.924301
84.532626 26.737668 37.850235
86.256407 26.737668 39.923571
87.805457 26.737668 42.130515
89.169465 26.737668 44.456378
90.339355 26.737668 46.885680
91.307342 26.737668 49.402256
92.066981 26.737668 51.989358
92.613220 26.737668 54.629773
92.942432 26.737668 57.305921
95.585078 30.435860 59.999999
95.466666 30.435860 62.900513
95.112234 30.435860 65.781720
94.524138 30.435860 68.624459
93.706295 30.435860 71.409799
92.664130 30.435860 74.119210
91.404594 30.435860 76.734655
89.936063 30.435860 79.238743
88.268325 30.435860 81.614792
86.412452 30.435860 83.847009
84.380820 30.435860 85.920520
82.186930 30.435860 87.821536
79.845391 30.435860 89.537397
77.371791 30.435860 91.056697
74.782573 30.435860 92.369325
72.094984 30.435860 93.466528
69.326907 30.435860 94.341025
66.496760 30.435860 94.986990
63.623376 30.435860 95.400125
60.725883 30.435860 95.577665
57.823554 30.435860 95.518455
54.935716 30.435860 95.222868
52.081574 30.435860 94.692878
49.280129 30.435860 93.932018
46.550024 30.435860 92.945345
43.909427 30.435860 91.739424
41.375909 30.435860 90.322278
38.966332 30.435860 88.703357
36.696732 30.435860 86.893402
34.582209 30.435860 84.904484
32.636836 30.435860 82.749829
30.873563 30.435860 80.443777
29.304121 30.435860 78.001678
27.938955 30.435860 75.439781
26.787151 30.435860 72.775140
25.856368 30.435860 70.025474
25.152810 30.435860 67.209095
24.681155 30.435860 64.344734
24.444539 30.435860 61.451461
24.444539 30.435860 58.548536
24.681155 30.435860 55.655263
25.152810 30.435860 52.790906
25.856368 30.435860 49.974527
26.787151 30.435860 47.224861
27.938955 30.435860 44.560216
29.304121 30.435860 41.998316
30.873563 30.435860 39.556213
32.636836 30.435860 37.250165
34.582209 30.435860 35.095513
36.696732 30.435860 33.106595
38.966332 30.435860 31.296644
41.375909 30.435860 29.677715
43.909427 30.435860 28.260574
46.550024 30.435860 27.054653
49.280129 30.435860 26.067980
52.081574 30.435860 25.307115
54.935716 30.435860 24.777129
57.823554 30.435860 24.481542
60.725883 30.435860 24.422329
63.623376 30.435860 24.599876
66.496760 30.435860 25.013007
69.326907 30.435860 25.658969
72.094984 30.435860 26.533466
74.782573 30.435860 27.630676
77.371791 30.435860 28.943300
79.845391 30.435860 30.462600
82.186930 30.435860 32.178465
84.380820 30.435860 34.079481
86.412452 30.435860 36.152992
88.268325 30.435860 38.385205
89.936063 30.435860 40.761255
91.404594 30.435860 43.265339
92.664130 30.435860 45.880787
93.706295 30.435860 48.590198
94.524138 30.435860 51.375538
95.112234 30.435860 54.218274
95.466666 30.435860 57.099484
98.185644 34.702078 59.999999
98.058589 34.702078 63.112482
97.678252 34.702078 66.204257
97.047180 34.702078 69.254741
96.169561 34.702078 72.243638
95.051236 34.702078 75.151049
93.699664 34.702078 77.957638
92.123806 34.702078 80.644719
90.334184 34.702078 83.194412
88.342689 34.702078 85.589752
86.162582 34.702078 87.814800
83.808362 34.702078 89.854747
81.295699 34.702078 91.696009
78.641325 34.702078 93.326338
75.862892 34.702078 94.734885
72.978891 34.702078 95.912285
70.008524 34.702078 96.850693
66.971540 34.702078 97.543858
63.888177 34.702078 97.987175
60.778931 34.702078 98.177701
57.664502 34.702078 98.114155
54.565612 34.702078 97.796977
51.502891 34.702078 97.228259
48.496716 34.702078 96.411787
45.567092 34.702078 95.353007
42.733520 34.702078 94.058961
40.014852 34.702078 92.538245
37.429180 34.702078 90.801001
34.993716 34.702078 88.858791
32.724664 34.702078 86.724520
30.637123 34.702078 84.412396
28.744988 34.702078 81.937820
27.060851 34.702078 79.317257
25.595918 34.702078 76.568134
24.359938 34.702078 73.708750
23.361135 34.702078 70.758142
22.606160 34.702078 67.735933
22.100035 34.702078 64.662248
21.846127 34.702078 61.557539
21.846127 34.702078 58.442459
22.100035 34.702078 55.337746
22.606160 34.702078 52.264061
23.361135 34.702078 49.241859
24.359938 34.702078 46.291247
25.595918 34.702078 43.431867
27.060851 34.702078 40.682744
28.744988 34.702078 38.062178
30.637123 34.702078 35.587598
32.724664 34.702078 33.275478
34.993716 34.702078 31.141210
37.429180 34.702078 29.198991
40.014852 34.702078 27.461749
42.733520 34.702078 25.941040
45.567092 34.702078 24.646990
48.496716 34.702078 23.588210
51.502891 34.702078 22.771742
54.565612 34.702078 22.203024
57.664502 34.702078 21.885838
60.778931 34.702078 21.822292
63.888177 34.702078 22.012819
66.971540 34.702078 22.456139
70.008524 34.702078 23.149308
72.978891 34.702078 24.087712
75.862892 34.702078 25.265109
78.641325 34.702078 26.673660
81.295699 34.702078 28.303992
83.808362 34.702078 30.145256
86.162582 34.702078 32.185197
88.342689 34.702078 34.410242
90.334184 34.702078 36.805581
92.123806 34.702078 39.355278
93.699664 34.702078 42.042360
95.051236 34.702078 44.848949
96.169561 34.702078 47.756363
97.047180 34.702078 50.745260
97.678252 34.702078 53.795744
98.058589 34.702078 56.887511
100.566544 39.090566 59.999999
100.431554 39.090566 63.306548
100.027509 39.090566 66.591091
99.357083 39.090566 69.831781
98.424748 39.090566 73.007025
97.236700 39.090566 76.095723
95.800847 39.090566 79.077303
94.126746 39.090566 81.931934
92.225537 39.090566 84.640592
90.109870 39.090566 87.185286
87.793835 39.090566 89.549065
85.292824 39.090566 91.716200
82.623497 39.090566 93.672261
79.803616 39.090566 95.404252
76.851949 39.090566 96.900620
73.788129 39.090566 98.151430
70.632562 39.090566 99.148348
67.406230 39.090566 99.884734
64.130604 39.090566 100.355700
60.827497 39.090566 100.558102
57.518885 39.090566 100.490592
54.226775 39.090566 100.153632
50.973095 39.090566 99.549457
47.779478 39.090566 98.682083
44.667199 39.090566 97.557284
41.656949 39.090566 96.182548
38.768768 39.090566 94.567023
36.021881 39.090566 92.721470
33.434562 39.090566 90.658151
31.024033 39.090566 88.390797
28.806334 39.090566 85.934527
26.796225 39.090566 83.305657
25.007080 39.090566 80.521688
23.450807 39.090566 77.601165
22.137759 39.090566 74.563496
21.076687 39.090566 71.428917
20.274639 39.090566 68.218276
19.736953 39.090566 64.952940
19.467216 39.090566 61.654653
19.467216 39.090566 58.345348
19.736953 39.090566 55.047054
20.274639 39.090566 51.781721
21.076687 39.090566 48.571084
22.137759 39.090566 45.436502
23.450807 39.090566 42.398833
25.007080 39.090566 39.478302
26.796225 39.090566 36.694340
28.806334 39.090566 34.065470
31.024033 39.090566 31.609192
33.434562 39.090566 29.341850
36.021881 39.090566 27.278535
38.768768 39.090566 25.432974
41.656949 39.090566 23.817450
44.667199 39.090566 22.442713
47.779478 39.090566 21.317918
50.973095 39.090566 20.450544
54.226775 39.090566 19.846365
57.518885 39.090566 19.509401
60.827497 39.090566 19.441895
64.130604 39.090566 19.644298
67.406230 39.090566 20.115264
70.632562 39.090566 20.851653
73.788129 39.090566 21.848567
76.851949 39.090566 23.099374
79.803616 39.090566 24.595749
82.623497 39.090566 26.327733
85.292824 39.090566 28.283797
87.793835 39.090566 30.450931
90.109870 39.090566 32.814708
92.225537 39.090566 35.359398
94.126746 39.090566 38.068071
95.800847 39.090566 40.922694
97.236700 39.090566 43.904275
98.424748 39.090566 46.992965
99.357083 39.090566 50.168220
100.027509 39.090566 53.408906
100.431554 39.090566 56.693446
102.809668 43.740116 59.999999
102.667220 43.740116 63.489385
102.240838 43.740116 66.955552
101.533338 43.740116 70.375428
100.549445 43.740116 73.726259
99.295706 43.740116 76.985739
97.780459 43.740116 80.132186
96.013784 43.740116 83.144650
94.007447 43.740116 86.003095
91.774799 43.740116 88.688500
89.330688 43.740116 91.182984
86.691394 43.740116 93.469948
83.874464 43.740116 95.534176
80.898657 43.740116 97.361930
77.783778 43.740116 98.941043
74.550547 43.740116 100.261018
71.220480 43.740116 101.313055
67.815751 43.740116 102.090165
64.359009 43.740116 102.587163
60.873251 43.740116 102.800757
57.381686 43.740116 102.729522
53.907547 43.740116 102.373928
50.473951 43.740116 101.736344
47.103748 43.740116 100.821003
43.819372 43.740116 99.634007
40.642671 43.740116 98.183267
37.594788 43.740116 96.478410
34.696009 43.740116 94.530798
31.965625 43.740116 92.353389
29.421806 43.740116 89.960672
27.081482 43.740116 87.368578
24.960220 43.740116 84.594347
23.072146 43.740116 81.656441
21.429818 43.740116 78.574419
20.044170 43.740116 75.368784
18.924423 43.740116 72.060876
18.078022 43.740116 68.672709
17.510608 43.740116 65.226816
17.225955 43.740116 61.746143
17.225955 43.740116 58.253855
17.510608 43.740116 54.773182
18.078022 43.740116 51.327292
18.924423 43.740116 47.939122
20.044170 43.740116 44.631209
21.429818 43.740116 41.425578
23.072146 43.740116 38.343556
24.960220 43.740116 35.405651
27.081482 43.740116 32.631420
29.421806 43.740116 30.039323
31.965625 43.740116 27.646609
34.696009 43.740116 25.469199
37.594788 43.740116 23.521587
40.642671 43.740116 21.816734
43.819372 43.740116 20.365983
47.103748 43.740116 19.178990
50.473951 43.740116 18.263657
53.907547 43.740116 17.626069
57.381686 43.740116 17.270476
60.873251 43.740116 17.199237
64.359009 43.740116 17.412830
67.815751 43.740116 17.909836
71.220480 43.740116 18.686943
74.550547 43.740116 19.738983
77.783778 43.740116 21.058954
80.898657 43.740116 22.638068
83.874464 43.740116 24.465822
86.691394 43.740116 26.530050
89.330688 43.740116 28.817017
91.774799 43.740116 31.311497
94.007447 43.740116 33.996899
96.013784 43.740116 36.855344
97.780459 43.740116 39.867815
99.295706 43.740116 43.014258
100.549445 43.740116 46.273742
101.533338 43.740116 49.624573
102.240838 43.740116 53.044450
102.667220 43.740116 56.510612
104.853056 48.543535 59.999999
104.703814 48.543535 63.655943
104.257070 48.543535 67.287549
103.515804 48.543535 70.870668
102.484949 48.543535 74.381433
101.171367 48.543535 77.796504
99.583790 48.543535 81.093132
97.732790 48.543535 84.249392
95.630683 48.543535 87.244280
93.291469 48.543535 90.057857
90.730697 48.543535 92.671402
87.965421 48.543535 95.067531
85.014038 48.543535 97.230285
81.896193 48.543535 99.145278
78.632630 48.543535 100.799777
75.245075 48.543535 102.182746
71.756057 48.543535 103.285007
68.188809 48.543535 104.099207
64.567067 48.543535 104.619935
60.914937 48.543535 104.843728
57.256710 48.543535 104.769081
53.616740 48.543535 104.396515
50.019257 48.543535 103.728496
46.488184 48.543535 102.769472
43.047037 48.543535 101.525821
39.718710 48.543535 100.005820
36.525346 48.543535 98.219588
33.488203 48.543535 96.179016
30.627493 48.543535 93.897678
27.962252 48.543535 91.390751
25.510218 48.543535 88.674925
23.287706 48.543535 85.768282
21.309510 48.543535 82.690150
19.588791 48.543535 79.461016
18.137004 48.543535 76.102361
16.963806 48.543535 72.636567
16.077008 48.543535 69.086671
15.482511 48.543535 65.476306
15.184268 48.543535 61.829492
15.184268 48.543535 58.170505
15.482511 48.543535 54.523695
16.077008 48.543535 50.913330
16.963806 48.543535 47.363434
18.137004 48.543535 43.897629
19.588791 48.543535 40.538985
21.309510 48.543535 37.309851
23.287706 48.543535 34.231719
25.510218 48.543535 31.325068
27.962252 48.543535 28.609242
30.627493 48.543535 26.102319
33.488203 48.543535 23.820981
36.525346 48.543535 21.780405
39.718710 48.543535 19.994177
43.047037 48.543535 18.474177
46.488184 48.543535 17.230529
50.019257 48.543535 16.271502
53.616740 48.543535 15.603484
57.256710 48.543535 15.230913
60.914937 48.543535 15.156273
64.567067 48.543535 15.380066
68.188809 48.543535 15.900791
71.756057 48.543535 16.714994
75.245075 48.543535 17.817248
78.632630 48.543535 19.200224
81.896193 48.543535 20.854715
85.014038 48.543535 22.769708
87.965421 48.543535 24.932466
90.730697 48.543535 27.328592
93.291469 48.543535 29.942142
95.630683 48.543535 32.755718
97.732790 48.543535 35.750605
99.583790 48.543535 38.906869
101.171367 48.543535 42.203497
102.484949 48.543535 45.618564
103.515804 48.543535 49.129333
104.257070 48.543535 52.712448
104.703814 48.543535 56.344058
106.657296 53.416312 59.999999
106.502049 53.416312 63.803002
106.037341 53.416312 67.580692
105.266251 53.416312 71.307942
104.193933 53.416312 74.959941
102.827504 53.416312 78.512378
101.176068 53.416312 81.941612
99.250615 53.416312 85.224837
97.063959 53.416312 88.340193
94.630636 53.416312 91.266952
91.966860 53.416312 93.985632
89.090347 53.416312 96.478142
86.020246 53.416312 98.727897
82.776986 53.416312 100.719921
79.382144 53.416312 102.440968
75.858317 53.416312 103.879578
72.228961 53.416312 105.026171
68.518214 53.416312 105.873123
64.750783 53.416312 106.414795
60.951740 53.416312 106.647588
57.146363 53.416312 106.569946
53.359974 53.416312 106.182396
49.617771 53.416312 105.487503
45.944665 53.416312 104.489900
42.365093 53.416312 103.196219
38.902879 53.416312 101.615079
35.581063 53.416312 99.757001
32.421749 53.416312 97.634338
29.445965 53.416312 95.261231
26.673514 53.416312 92.653468
24.122845 53.416312 89.828402
21.810930 53.416312 86.804822
19.753162 53.416312 83.602868
17.963223 53.416312 80.243841
16.453039 53.416312 76.750092
15.232649 53.416312 73.144883
14.310177 53.416312 69.452189
13.691768 53.416312 65.696590
13.381530 53.416312 61.903086
13.381530 53.416312 58.096912
13.691768 53.416312 54.303404
14.310177 53.416312 50.547812
15.232649 53.416312 46.855118
16.453039 53.416312 43.249905
17.963223 53.416312 39.756153
19.753162 53.416312 36.397129
21.810930 53.416312 33.195175
24.122845 53.416312 30.171601
26.673514 53.416312 27.346533
29.445965 53.416312 24.738766
32.421749 53.416312 22.365656
35.581063 53.416312 20.242997
38.902879 53.416312 18.384915
42.365093 53.416312 16.803775
45.944665 53.416312 15.510101
49.617771 53.416312 14.512494
53.359974 53.416312 13.817605
57.146363 53.416312 13.430048
60.951740 53.416312 13.352409
64.750783 53.416312 13.585199
68.518214 53.416312 14.126875
72.228961 53.416312 14.973827
75.858317 53.416312 16.120423
79.382144 53.416312 17.559025
82.776986 53.416312 19.280069
86.020246 53.416312 21.272097
89.090347 53.416312 23.521852
91.966860 53.416312 26.014365
94.630636 53.416312 28.733045
97.063959 53.416312 31.659801
99.250615 53.416312 34.775157
101.176068 53.416312 38.058382
102.827504 53.416312 41.487623
104.193933 53.416312 45.040064
105.266251 53.416312 48.692055
106.037341 53.416312 52.419301
106.502049 53.416312 56.196995
108.229622 58.364764 59.999999
108.069137 58.364764 63.931160
107.588768 58.364764 67.836158
106.791697 58.364764 71.689010
105.683245 58.364764 75.464070
104.270764 58.364764 79.136230
102.563679 58.364764 82.681030
100.573331 58.364764 86.074896
98.312989 58.364764 89.295246
95.797665 58.364764 92.320628
93.044117 58.364764 95.130920
90.070672 58.364764 97.707428
86.897112 58.364764 100.033008
83.544545 58.364764 102.092162
80.035307 58.364764 103.871204
76.392733 58.364764 105.358288
72.641060 58.364764 106.543526
68.805277 58.364764 107.419014
64.910881 58.364764 107.978947
60.983811 58.364764 108.219579
57.050195 58.364764 108.139329
53.136207 58.364764 107.738711
49.267899 58.364764 107.020400
45.471009 58.364764 105.989173
41.770808 58.364764 104.651906
38.191922 58.364764 103.017487
34.758158 58.364764 101.096787
31.492379 58.364764 98.902598
28.416313 58.364764 96.449517
25.550433 58.364764 93.753867
22.913806 58.364764 90.833597
20.523984 58.364764 87.708130
18.396869 58.364764 84.398270
16.546614 58.364764 80.926046
14.985535 58.364764 77.314563
13.724018 58.364764 73.587850
12.770463 58.364764 69.770724
12.131210 58.364764 65.888569
11.810515 58.364764 61.967216
11.810515 58.364764 58.032781
12.131210 58.364764 54.111436
12.770463 58.364764 50.229277
13.724018 58.364764 46.412144
14.985535 58.364764 42.685434
16.546614 58.364764 39.073952
18.396869 58.364764 35.601728
20.523984 58.364764 32.291871
22.913806 58.364764 29.166402
25.550433 58.364764 26.246130
28.416313 58.364764 23.550484
31.492379 58.364764 21.097403
34.758158 58.364764 18.903214
38.191922 58.364764 16.982514
41.770808 58.364764 15.348092
45.471009 58.364764 14.010821
49.267899 58.364764 12.979597
53.136207 58.364764 12.261286
57.050195 58.364764 11.860672
60.983811 58.364764 11.780415
64.910881 58.364764 12.021050
68.805277 58.364764 12.580980
72.641060 58.364764 13.456475
76.392733 58.364764 14.641710
80.035307 58.364764 16.128793
83.544545 58.364764 17.907836
86.897112 58.364764 19.966993
90.070672 58.364764 22.292566
93.044117 58.364764 24.869073
95.797665 58.364764 27.679369
98.312989 58.364764 30.704755
100.573331 58.364764 33.925097
102.563679 58.364764 37.318964
104.270764 58.364764 40.863767
105.683245 58.364764 44.535920
106.791697 58.364764 48.310984
107.588768 58.364764 52.163836
108.069137 58.364764 56.068838
109.592885 63.443542 59.999999
109.427869 63.443542 64.042285
108.933918 63.443542 68.057664
108.114317 63.443542 72.019413
106.974535 63.443542 75.901195
105.522133 63.443542 79.677142
103.766792 63.443542 83.322145
101.720192 63.443542 86.811945
99.395953 63.443542 90.123303
96.809529 63.443542 93.234211
93.978159 63.443542 96.123949
90.920664 63.443542 98.773278
87.657385 63.443542 101.164587
84.210068 63.443542 103.281952
80.601633 63.443542 105.111271
76.856092 63.443542 106.640399
72.998375 63.443542 107.859127
69.054164 63.443542 108.759373
65.049700 63.443542 109.335132
61.011620 63.443542 109.582573
56.966815 63.443542 109.500043
52.942194 63.443542 109.088108
48.964541 63.443542 108.349487
45.060329 63.443542 107.289121
41.255537 63.443542 105.914049
37.575487 63.443542 104.233421
34.044668 63.443542 102.258436
30.686576 63.443542 100.002222
27.523562 63.443542 97.479805
24.576675 63.443542 94.707958
21.865521 63.443542 91.705143
19.408148 63.443542 88.491336
17.220903 63.443542 85.087918
15.318349 63.443542 81.517547
13.713144 63.443542 77.803977
12.415972 63.443542 73.971935
11.435460 63.443542 70.046894
10.778140 63.443542 66.055007
10.448381 63.443542 62.022824
10.448381 63.443542 57.977177
10.778140 63.443542 53.944990
11.435460 63.443542 49.953099
12.415972 63.443542 46.028070
13.713144 63.443542 42.196017
15.318349 63.443542 38.482450
17.220903 63.443542 34.912080
19.408148 63.443542 31.508662
21.865521 63.443542 28.294854
24.576675 63.443542 25.292035
27.523562 63.443542 22.520196
30.686576 63.443542 19.997776
34.044668 63.443542 17.741563
37.575487 63.443542 15.766572
41.255537 63.443542 14.085952
45.060329 63.443542 12.710877
48.964541 63.443542 11.650506
52.942194 63.443542 10.911893
56.966815 63.443542 10.499954
61.011620 63.443542 10.417428
65.049700 63.443542 10.664869
69.054164 63.443542 11.240624
72.998375 63.443542 12.140866
76.856092 63.443542 13.359599
80.601633 63.443542 14.888722
84.210068 63.443542 16.718049
87.657385 63.443542 18.835410
90.920664 63.443542 21.226719
93.978159 63.443542 23.876052
96.809529 63.443542 26.765786
99.395953 63.443542 29.876690
101.720192 63.443542 33.188056
103.766792 63.443542 36.677856
105.522133 63.443542 40.322863
106.974535 63.443542 44.098809
108.114317 63.443542 47.980580
108.933918 63.443542 51.942337
109.427869 63.443542 55.957720
110.852361 69.133759 59.999999
110.683151 69.133759 64.144939
110.176660 69.133759 68.262294
109.336242 69.133759 72.324671
108.167507 69.133759 76.305017
106.678225 69.133759 80.176868
104.878306 69.133759 83.914436
102.779724 69.133759 87.492861
100.396462 69.133759 90.888329
97.744353 69.133759 94.078235
94.841070 69.133759 97.041361
91.705926 69.133759 99.757977
88.359788 69.133759 102.210015
84.824912 69.133759 104.381151
81.124835 69.133759 106.256932
77.284172 69.133759 107.824892
73.328488 69.133759 109.074578
69.284104 69.133759 109.997682
65.177940 69.133759 110.588059
61.037313 69.133759 110.841773
56.889784 69.133759 110.757157
52.762955 69.133759 110.334754
48.684284 69.133759 109.577388
44.680919 69.133759 108.490080
40.779497 69.133759 107.080095
37.005991 69.133759 105.356790
33.385500 69.133759 103.331640
29.942127 69.133759 101.018131
26.698783 69.133759 98.431647
23.677055 69.133759 95.589414
20.897049 69.133759 92.510335
18.377267 69.133759 89.214906
16.134478 69.133759 85.725062
14.183603 69.133759 82.064010
12.537632 69.133759 78.256138
11.207517 69.133759 74.326769
10.202102 69.133759 70.302054
9.528089 69.133759 66.208787
9.189956 69.133759 62.074196
9.189956 69.133759 57.925805
9.528089 69.133759 53.791214
10.202102 69.133759 49.697943
11.207517 69.133759 45.673233
12.537632 69.133759 41.743863
14.183603 69.133759 37.935987
16.134478 69.133759 34.274939
18.377267 69.133759 30.785091
20.897049 69.133759 27.489662
23.677055 69.133759 24.410583
26.698783 69.133759 21.568347
29.942127 69.133759 18.981870
33.385500 69.133759 16.668357
37.005991 69.133759 14.643211
40.779497 69.133759 12.919907
44.680919 69.133759 11.509914
48.684284 69.133759 10.422613
52.762955 69.133759 9.665240
56.889784 69.133759 9.242840
61.037313 69.133759 9.158220
65.177940 69.133759 9.411942
69.284104 69.133759 10.002319
73.328488 69.133759 10.925423
77.284172 69.133759 12.175109
81.124835 69.133759 13.743065
84.824912 69.133759 15.618850
88.359788 69.133759 17.789986
91.705926 69.133759 20.242020
94.841070 69.133759 22.958640
97.744353 69.133759 25.921762
100.396462 69.133759 29.111672
102.779724 69.133759 32.507136
104.878306 69.133759 36.085565
106.678225 69.133759 39.823137
108.167507 69.133759 43.694977
109.336242 69.133759 47.675330
110.176660 69.133759 51.737703
110.683151 69.133759 55.855062
111.856818 74.724250 59.999999
111.684270 74.724250 64.226814
111.167774 74.724250 68.425499
110.310763 74.724250 72.568111
109.118946 74.724250 76.627083
107.600234 74.724250 80.575407
105.764762 74.724250 84.386803
103.624731 74.724250 88.035911
101.194389 74.724250 91.498449
98.489903 74.724250 94.751365
95.529273 74.724250 97.773015
92.332199 74.724250 100.543298
88.919960 74.724250 103.043765
85.315272 74.724250 105.257787
81.542097 74.724250 107.170627
77.625580 74.724250 108.769551
73.591761 74.724250 110.043921
69.467492 74.724250 110.985257
65.280214 74.724250 111.587293
61.057799 74.724250 111.846030
56.828350 74.724250 111.759745
52.620001 74.724250 111.328997
48.460770 74.724250 110.556662
44.378325 74.724250 109.447882
40.399846 74.724250 108.010039
36.551800 74.724250 106.252693
32.859799 74.724250 104.187548
29.348409 74.724250 101.828337
26.041001 74.724250 99.190772
22.959586 74.724250 96.292391
20.124666 74.724250 93.152493
17.555114 74.724250 89.791976
15.268020 74.724250 86.233191
13.278615 74.724250 82.499832
11.600133 74.724250 78.616738
10.243740 74.724250 74.609756
9.218469 74.724250 70.505545
8.531142 74.724250 66.331424
8.186329 74.724250 62.115166
8.186329 74.724250 57.884831
8.531142 74.724250 53.668573
9.218469 74.724250 49.494453
10.243740 74.724250 45.390245
11.600133 74.724250 41.383259
13.278615 74.724250 37.500165
15.268020 74.724250 33.766806
17.555114 74.724250 30.208023
20.124666 74.724250 26.847500
22.959586 74.724250 23.707606
26.041001 74.724250 20.809226
29.348409 74.724250 18.171657
32.859799 74.724250 15.812449
36.551800 74.724250 13.747301
40.399846 74.724250 11.989955
44.378325 74.724250 10.552112
48.460770 74.724250 9.443335
52.620001 74.724250 8.671004
56.828350 74.724250 8.240256
61.057799 74.724250 8.153964
65.280214 74.724250 8.412700
69.467492 74.724250 9.014741
73.591761 74.724250 9.956077
77.625580 74.724250 11.230446
81.542097 74.724250 12.829375
85.315272 74.724250 14.742211
88.919960 74.724250 16.956232
92.332199 74.724250 19.456703
95.529273 74.724250 22.226982
98.489903 74.724250 25.248632
101.194389 74.724250 28.501548
103.624731 74.724250 31.964086
105.764762 74.724250 35.613194
107.600234 74.724250 39.424591
109.118946 74.724250 43.372914
110.310763 74.724250 47.431890
111.167774 74.724250 51.574502
111.684270 74.724250 55.773187
112.905696 82.006708 59.999999
112.729661 82.006708 64.312302
112.202711 82.006708 68.595909
111.328363 82.006708 72.822317
110.112436 82.006708 76.963387
108.563021 82.006708 80.991574
106.690414 82.006708 84.880061
104.507104 82.006708 88.602982
102.027602 82.006708 92.135541
99.268414 82.006708 95.454253
96.247904 82.006708 98.537028
92.986159 82.006708 101.363346
89.504905 82.006708 103.914380
85.827298 82.006708 106.173187
81.977822 82.006708 108.124718
77.982076 82.006708 109.755978
73.866665 82.006708 111.056127
69.658980 82.006708 112.016499
65.387018 82.006708 112.630725
61.079197 82.006708 112.894692
56.764197 82.006708 112.806648
52.470732 82.006708 112.367198
48.227374 82.006708 111.579239
44.062357 82.006708 110.448033
40.003408 82.006708 108.981110
36.077529 82.006708 107.188225
32.310851 82.006708 105.081297
28.728440 82.006708 102.674380
25.354136 82.006708 99.983461
22.210393 82.006708 97.026460
19.318134 82.006708 93.823053
16.696610 82.006708 90.394557
14.363259 82.006708 86.763792
12.333613 82.006708 82.954921
10.621179 82.006708 78.993283
9.237353 82.006708 74.905261
8.191347 82.006708 70.718035
7.490113 82.006708 66.459477
7.138330 82.006708 62.157948
7.138330 82.006708 57.842050
7.490113 82.006708 53.540513
8.191347 82.006708 49.281962
9.237353 82.006708 45.094743
10.621179 82.006708 41.006710
12.333613 82.006708 37.045076
14.363259 82.006708 33.236202
16.696610 82.006708 29.605441
19.318134 82.006708 26.176948
22.210393 82.006708 22.973541
25.354136 82.006708 20.016540
28.728440 82.006708 17.325621
32.310851 82.006708 14.918696
36.077529 82.006708 12.811776
40.003408 82.006708 11.018887
44.062357 82.006708 9.551961
48.227374 82.006708 8.420758
52.470732 82.006708 7.632803
56.764197 82.006708 7.193346
61.079197 82.006708 7.105310
65.387018 82.006708 7.369276
69.658980 82.006708 7.983495
73.866665 82.006708 8.943871
77.982076 82.006708 10.244019
81.977822 82.006708 11.875283
85.827298 82.006708 13.826810
89.504905 82.006708 16.085614
92.986159 82.006708 18.636659
96.247904 82.006708 21.462969
99.268414 82.006708 24.545740
102.027602 82.006708 27.864452
104.507104 82.006708 31.397019
106.690414 82.006708 35.119936
108.563021 82.006708 39.008424
110.112436 82.006708 43.036610
111.328363 82.006708 47.177680
112.202711 82.006708 51.404085
112.729661 82.006708 55.687696
114.226364 92.994675 59.999999
114.045933 92.994675 64.419955
113.505825 92.994675 68.810485
112.609655 92.994675 73.142394
111.363381 92.994675 77.386841
109.775275 92.994675 81.515580
107.855938 92.994675 85.501134
105.618127 92.994675 89.316987
103.076719 92.994675 92.937738
100.248657 92.994675 96.339293
97.152740 92.994675 99.499017
93.809582 92.994675 102.395885
90.241432 92.994675 105.010606
86.472020 92.994675 107.325792
82.526445 92.994675 109.326042
78.430958 92.994675 110.998027
74.212819 92.994675 112.330630
69.900095 92.994675 113.314971
65.521494 92.994675 113.944523
61.106138 92.994675 114.215083
56.683421 92.994675 114.124849
52.282784 92.994675 113.674425
47.933497 92.994675 112.866797
43.664511 92.994675 111.707360
39.504237 92.994675 110.203810
35.480358 92.994675 108.366162
31.619657 92.994675 106.206648
27.947817 92.994675 103.739642
24.489280 92.994675 100.981548
21.267064 92.994675 97.950734
18.302605 92.994675 94.667368
15.615638 92.994675 91.153286
13.224043 92.994675 87.431893
11.143729 92.994675 83.527938
9.388551 92.994675 79.467408
7.970180 92.994675 75.277328
6.898060 92.994675 70.985585
6.179325 92.994675 66.620730
5.818758 92.994675 62.211815
5.818758 92.994675 57.788182
6.179325 92.994675 53.379267
6.898060 92.994675 49.014412
7.970180 92.994675 44.722669
9.388551 92.994675 40.532589
11.143729 92.994675 36.472060
13.224043 92.994675 32.568108
15.615638 92.994675 28.846711
18.302605 92.994675 25.332633
21.267064 92.994675 22.049259
24.489280 92.994675 19.018445
27.947817 92.994675 16.260356
31.619657 92.994675 13.793346
35.480358 92.994675 11.633832
39.504237 92.994675 9.796187
43.664511 92.994675 8.292641
47.933497 92.994675 7.133201
52.282784 92.994675 6.325576
56.683421 92.994675 5.875152
61.106138 92.994675 5.784914
65.521494 92.994675 6.055471
69.900095 92.994675 6.685022
74.212819 92.994675 7.669371
78.430958 92.994675 9.001974
82.526445 92.994675 10.673959
86.472020 92.994675 12.674205
90.241432 92.994675 14.989391
93.809582 92.994675 17.604116
97.152740 92.994675 20.500980
100.248657 92.994675 23.660704
103.076719 92.994675 27.062260
105.618127 92.994675 30.683011
107.855938 92.994675 34.498859
109.775275 92.994675 38.484417
111.363381 92.994675 42.613156
112.609655 92.994675 46.857603
113.505825 92.994675 51.189508
114.045933 92.994675 55.580046
115.052469 99.382780 59.999999
114.869289 99.382780 64.487286
114.320956 99.382780 68.944708
113.411129 99.382780 73.342614
112.145863 99.382780 77.651717
110.533573 99.382780 81.843354
108.584993 99.382780 85.889623
106.313080 99.382780 89.763612
103.732973 99.382780 93.439519
100.861818 99.382780 96.892901
97.718745 99.382780 100.100756
94.324656 99.382780 103.041753
90.702131 99.382780 105.696313
86.875305 99.382780 108.046770
82.869619 99.382780 110.077485
78.711748 99.382780 111.774944
74.429341 99.382780 113.127843
70.050918 99.382780 114.127189
65.605603 99.382780 114.766337
61.122991 99.382780 115.041018
56.632895 99.382780 114.949405
52.165214 99.382780 114.492111
47.749672 99.382780 113.672189
43.415654 99.382780 112.495087
39.191999 99.382780 110.968627
35.106819 99.382780 109.102987
31.187300 99.382780 106.910579
27.459525 99.382780 104.405992
23.948301 99.382780 101.605877
20.676993 99.382780 98.528884
17.667376 99.382780 95.195495
14.939472 99.382780 91.627881
12.511440 99.382780 87.849796
10.399438 99.382780 83.886370
8.617520 99.382780 79.763986
7.177543 99.382780 75.510070
6.089091 99.382780 71.152940
5.359404 99.382780 66.721596
4.993346 99.382780 62.245511
4.993346 99.382780 57.754487
5.359404 99.382780 53.278405
6.089091 99.382780 48.847053
7.177543 99.382780 44.489924
8.617520 99.382780 40.236011
10.399438 99.382780 36.113627
12.511440 99.382780 32.150201
14.939472 99.382780 28.372113
17.667376 99.382780 24.804499
20.676993 99.382780 21.471109
23.948301 99.382780 18.394120
27.459525 99.382780 15.594009
31.187300 99.382780 13.089418
35.106819 99.382780 10.897007
39.191999 99.382780 9.031367
43.415654 99.382780 7.504914
47.749672 99.382780 6.327812
52.165214 99.382780 5.507886
56.632895 99.382780 5.050596
61.122991 99.382780 4.958984
65.605603 99.382780 5.233664
70.050918 99.382780 5.872805
74.429341 99.382780 6.872151
78.711748 99.382780 8.225054
82.869619 99.382780 9.922512
86.875305 99.382780 11.953227
90.702131 99.382780 14.303684
94.324656 99.382780 16.958244
97.718745 99.382780 19.899242
100.861818 99.382780 23.107100
103.732973 99.382780 26.560478
106.313080 99.382780 30.236388
108.584993 99.382780 34.110371
110.533573 99.382780 38.156644
112.145863 99.382780 42.348281
113.411129 99.382780 46.657387
114.320956 99.382780 51.055286
114.869289 99.382780 55.512711
115.920961 104.838029 59.999999
115.734890 104.838029 64.558074
115.177907 104.838029 69.085822
114.253730 104.838029 73.553100
112.968504 104.838029 77.930182
111.330777 104.838029 82.187951
109.351456 104.838029 86.298056
107.043706 104.838029 90.233155
104.422890 104.838029 93.967058
101.506449 104.838029 97.474910
98.313779 104.838029 100.733377
94.866149 104.838029 103.720769
91.186486 104.838029 106.417209
87.299280 104.838029 108.804740
83.230406 104.838029 110.867500
79.006933 104.838029 112.591736
74.656978 104.838029 113.965981
70.209481 104.838029 114.981093
65.694042 104.838029 115.630314
61.140705 104.838029 115.909323
56.579780 104.838029 115.816280
52.041616 104.838029 115.351766
47.556411 104.838029 114.518903
43.154024 104.838029 113.323234
38.863741 104.838029 111.772701
34.714110 104.838029 109.877624
30.732756 104.838029 107.650630
26.946172 104.838029 105.106525
23.379557 104.838029 102.262244
20.056643 104.838029 99.136710
16.999543 104.838029 95.750734
14.228608 104.838029 92.126839
11.762273 104.838029 88.289149
9.616952 104.838029 84.263198
7.806920 104.838029 80.075778
6.344225 104.838029 75.754754
5.238604 104.838029 71.328886
4.497409 104.838029 66.827632
4.125573 104.838029 62.280938
4.125573 104.838029 57.719063
4.497409 104.838029 53.172369
5.238604 104.838029 48.671108
6.344225 104.838029 44.245243
7.806920 104.838029 39.924219
9.616952 104.838029 35.736803
11.762273 104.838029 31.710848
14.228608 104.838029 27.873157
16.999543 104.838029 24.249263
20.056643 104.838029 20.863283
23.379557 104.838029 17.737754
26.946172 104.838029 14.893473
30.732756 104.838029 12.349367
34.714110 104.838029 10.122370
38.863741 104.838029 8.227296
43.154024 104.838029 6.676764
47.556411 104.838029 5.481090
52.041616 104.838029 4.648231
56.579780 104.838029 4.183725
61.140705 104.838029 4.090670
65.694042 104.838029 4.369684
70.209481 104.838029 5.018905
74.656978 104.838029 6.034017
79.006933 104.838029 7.408265
83.230406 104.838029 9.132501
87.299280 104.838029 11.195254
91.186486 104.838029 13.582792
94.866149 104.838029 16.279228
98.313779 104.838029 19.266620
101.506449 104.838029 22.525087
104.422890 104.838029 26.032943
107.043706 104.838029 29.766843
109.351456 104.838029 33.701938
111.330777 104.838029 37.812047
112.968504 104.838029 42.069811
114.253730 104.838029 46.446897
115.177907 104.838029 50.914176
115.734890 104.838029 55.441920
116.881929 109.598115 59.999999
116.692655 109.598115 64.636409
116.126105 109.598115 69.241956
115.186051 109.598115 73.786005
113.878734 109.598115 78.238301
112.212867 109.598115 82.569234
110.199533 109.598115 86.749971
107.852124 109.598115 90.752691
105.186269 109.598115 94.550759
102.219708 109.598115 98.118894
98.972186 109.598115 101.433352
95.465302 109.598115 104.472086
91.722406 109.598115 107.214861
87.768406 109.598115 109.643422
83.629608 109.598115 111.741625
79.333559 109.598115 113.495491
74.908853 109.598115 114.893347
70.384927 109.598115 115.925908
65.791883 109.598115 116.586290
61.160304 109.598115 116.870090
56.521002 109.598115 116.775438
51.904857 109.598115 116.302952
47.342580 109.598115 115.455776
42.864535 109.598115 114.239559
38.500521 109.598115 112.662375
34.279589 109.598115 110.734738
30.229818 109.598115 108.469471
26.378162 109.598115 105.881654
22.750260 109.598115 102.988496
19.370239 109.598115 99.809252
16.260609 109.598115 96.365087
13.442058 109.598115 92.678919
10.933341 109.598115 88.775277
8.751150 109.598115 84.680147
6.910019 109.598115 80.420762
5.422186 109.598115 76.025493
4.297566 109.598115 71.523570
3.543630 109.598115 66.944964
3.165405 109.598115 62.320132
3.165405 109.598115 57.679866
3.543630 109.598115 53.055037
4.297566 109.598115 48.476428
5.422186 109.598115 43.974508
6.910019 109.598115 39.579231
8.751150 109.598115 35.319854
10.933341 109.598115 31.224718
13.442058 109.598115 27.321078
16.260609 109.598115 23.634911
19.370239 109.598115 20.190746
22.750260 109.598115 17.011505
26.378162 109.598115 14.118347
30.229818 109.598115 11.530522
34.279589 109.598115 9.265255
38.500521 109.598115 7.337619
42.864535 109.598115 5.760439
47.342580 109.598115 4.544217
51.904857 109.598115 3.697045
56.521002 109.598115 3.224559
61.160304 109.598115 3.129907
65.791883 109.598115 3.413711
70.384927 109.598115 4.074089
74.908853 109.598115 5.106647
79.333559 109.598115 6.504510
83.629608 109.598115 8.258376
87.768406 109.598115 10.356575
91.722406 109.598115 12.785140
95.465302 109.598115 15.527915
98.972186 109.598115 18.566646
102.219708 109.598115 21.881104
105.186269 109.598115 25.449242
107.852124 109.598115 29.247306
110.199533 109.598115 33.250023
112.212867 109.598115 37.430763
113.878734 109.598115 41.761693
115.186051 109.598115 46.213996
116.126105 109.598115 50.758041
116.692655 109.598115 55.363595
117.964320 113.863930 59.999999
117.771447 113.863930 64.724632
117.194116 113.863930 69.417819
116.236165 113.863930 74.048333
114.903979 113.863930 78.585356
113.206409 113.863930 82.998693
111.154765 113.863930 87.258987
108.762689 113.863930 91.337875
106.046103 113.863930 95.208213
103.023097 113.863930 98.844245
99.713765 113.863930 102.221780
96.140161 113.863930 105.318330
92.326045 113.863930 108.113289
88.296801 113.863930 110.588074
84.079243 113.863930 112.726197
79.701446 113.863930 114.513434
75.192541 113.863930 115.937896
70.582531 113.863930 116.990104
65.902099 113.863930 117.663048
61.182383 113.863930 117.952257
56.454804 113.863930 117.855795
51.750816 113.863930 117.374323
47.101725 113.863930 116.511025
42.538472 113.863930 115.271665
38.091417 113.863930 113.664478
33.790160 113.863930 111.700155
29.663330 113.863930 109.391786
25.738385 113.863930 106.754720
22.041444 113.863930 103.806503
18.597111 113.863930 100.566775
15.428305 113.863930 97.057067
12.556121 113.863930 93.300760
9.999666 113.863930 89.322828
7.775955 113.863930 85.149772
5.899783 113.863930 80.809347
4.383642 113.863930 76.330438
3.237620 113.863930 71.742840
2.469342 113.863930 67.077108
2.083920 113.863930 62.364280
2.083920 113.863930 57.635717
2.469342 113.863930 52.922886
3.237620 113.863930 48.257153
4.383642 113.863930 43.669563
5.899783 113.863930 39.190650
7.775955 113.863930 34.850225
9.999666 113.863930 30.677164
12.556121 113.863930 26.699241
15.428305 113.863930 22.942930
18.597111 113.863930 19.433226
22.041444 113.863930 16.193490
25.738385 113.863930 13.245277
29.663330 113.863930 10.608211
33.790160 113.863930 8.299839
38.091417 113.863930 6.335523
42.538472 113.863930 4.728332
47.101725 113.863930 3.488969
51.750816 113.863930 2.625674
56.454804 113.863930 2.144199
61.182383 113.863930 2.047744
65.902099 113.863930 2.336949
70.582531 113.863930 3.009893
75.192541 113.863930 4.062098
79.701446 113.863930 5.486559
84.079243 113.863930 7.273801
88.296801 113.863930 9.411924
92.326045 113.863930 11.886705
96.140161 113.863930 14.681671
99.713765 113.863930 17.778222
103.023097 113.863930 21.155752
106.046103 113.863930 24.791785
108.762689 113.863930 28.662123
111.154765 113.863930 32.741010
113.206409 113.863930 37.001297
114.903979 113.863930 41.414641
116.236165 113.863930 45.951668
117.194116 113.863930 50.582182
117.771447 113.863930 55.275369
119.191125 117.783949 59.999999
118.994169 117.783949 64.824626
118.404619 117.783949 69.617145
117.426388 117.783949 74.345663
116.066009 117.783949 78.978717
114.332519 117.783949 83.485469
112.237439 117.783949 87.835923
109.794743 117.783949 92.001140
107.020669 117.783949 95.953390
103.933670 117.783949 99.666379
100.554302 117.783949 103.115395
96.905060 117.783949 106.277481
93.010217 117.783949 109.131604
88.895701 117.783949 111.658759
84.588885 117.783949 113.842137
80.118433 117.783949 115.667209
75.514093 117.783949 117.121816
70.806511 117.783949 118.196286
66.027015 117.783949 118.883476
61.207414 117.783949 119.178809
56.379773 117.783949 119.080305
51.576223 117.783949 118.588649
46.828736 117.783949 117.707074
42.168900 117.783949 116.441481
37.627723 117.783949 114.800274
33.235434 117.783949 112.794384
29.021259 117.783949 110.437155
25.013242 117.783949 107.744277
21.238055 117.783949 104.733668
17.720822 117.783949 101.425365
14.484953 117.783949 97.841375
11.551976 117.783949 94.005562
8.941412 117.783949 89.943454
6.670639 117.783949 85.682064
4.754759 117.783949 81.249774
3.206529 117.783949 76.676063
2.036251 117.783949 71.991377
1.251712 117.783949 67.226902
0.858132 117.783949 62.414322
0.858132 117.783949 57.585679
1.251712 117.783949 52.773099
2.036251 117.783949 48.008613
3.206529 117.783949 43.323934
4.754759 117.783949 38.750224
6.670639 117.783949 34.317933
8.941412 117.783949 30.056549
11.551976 117.783949 25.994435
14.484953 117.783949 22.158623
17.720822 117.783949 18.574636
21.238055 117.783949 15.266333
25.013242 117.783949 12.255721
29.021259 117.783949 9.562839
33.235434 117.783949 7.205609
37.627723 117.783949 5.199719
42.168900 117.783949 3.558517
46.828736 117.783949 2.292920
51.576223 117.783949 1.411352
56.379773 117.783949 0.919688
61.207414 117.783949 0.821188
66.027015 117.783949 1.116518
70.806511 117.783949 1.803707
75.514093 117.783949 2.878182
80.118433 117.783949 4.332792
84.588885 117.783949 6.157856
88.895701 117.783949 8.341234
93.010217 117.783949 10.868393
96.905060 117.783949 13.722513
100.554302 117.783949 16.884603
103.933670 117.783949 20.333618
107.020669 117.783949 24.046607
109.794743 117.783949 27.998861
112.237439 117.783949 32.164078
114.332519 117.783949 36.514536
116.066009 117.783949 41.021284
117.426388 117.783949 45.654334
118.404619 117.783949 50.382856
118.994169 117.783949 55.175371
48.809491 9.192497 59.999999
48.970457 9.192497 58.108795
49.448721 9.192497 56.271996
50.230529 9.192497 54.542445
51.293384 9.192497 52.969899
52.606713 9.192497 51.599596
54.132737 9.192497 50.470956
55.827547 9.192497 49.616452
57.642393 9.192497 49.060661
59.525058 9.192497 48.819575
61.421391 9.192497 48.900131
63.276835 9.192497 49.300008
65.038010 9.192497 50.007705
66.654243 9.192497 51.002864
68.079054 9.192497 52.256852
69.271438 9.192497 53.733598
70.197105 9.192497 55.390615
70.829421 9.192497 57.180237
71.150191 9.192497 59.050977
71.150191 9.192497 60.949020
70.829421 9.192497 62.819757
70.197105 9.192497 64.609386
69.271438 9.192497 66.266403
68.079054 9.192497 67.743137
66.654243 9.192497 68.997130
65.038010 9.192497 69.992296
63.276835 9.192497 70.699990
61.421391 9.192497 71.099870
59.525058 9.192497 71.180418
57.642393 9.192497 70.939340
55.827547 9.192497 70.383541
54.132737 9.192497 69.529034
52.606713 9.192497 68.400398
51.293384 9.192497 67.030095
50.230529 9.192497 65.457553
49.448721 9.192497 63.727997
48.970457 9.192497 61.891206
50.697312 8.123785 61.595105
51.100697 8.123785 63.144319
51.760096 8.123785 64.603083
52.656546 8.123785 65.929420
53.764250 8.123785 67.085184
55.051349 8.123785 68.037115
56.480814 8.123785 68.757832
58.011513 8.123785 69.226608
59.599418 8.123785 69.429949
61.198849 8.123785 69.362000
62.763788 8.123785 69.024734
64.249225 8.123785 68.427831
65.612413 8.123785 67.588486
66.814147 8.123785 66.530831
67.819849 8.123785 65.285295
68.600588 8.123785 63.887708
69.133893 8.123785 62.378280
69.404453 8.123785 60.800433
69.404453 8.123785 59.199560
69.133893 8.123785 57.621714
68.600588 8.123785 56.112289
67.819849 8.123785 54.714702
66.814147 8.123785 53.469166
65.612413 8.123785 52.411512
64.249225 8.123785 51.572163
62.763788 8.123785 50.975267
61.198849 8.123785 50.637998
59.599418 8.123785 50.570052
58.011513 8.123785 50.773393
56.480814 8.123785 51.242165
55.051349 8.123785 51.962882
53.764250 8.123785 52.914813
52.656546 8.123785 54.070577
51.760096 8.123785 55.396914
51.100697 8.123785 56.855675
50.697312 8.123785 58.404893
50.561547 8.123785 59.999999
52.255999 6.815762 61.327837
52.591797 6.815762 62.617481
53.140711 6.815762 63.831829
53.886957 6.815762 64.935938
54.809067 6.815762 65.898038
55.880509 6.815762 66.690475
57.070460 6.815762 67.290433
58.344688 6.815762 67.680664
59.666537 6.815762 67.849934
60.997978 6.815762 67.793377
62.300712 6.815762 67.512609
63.537255 6.815762 67.015730
64.672045 6.815762 66.317014
65.672420 6.815762 65.436572
66.509612 6.815762 64.399727
67.159534 6.815762 63.236311
67.603491 6.815762 61.979793
67.828707 6.815762 60.666319
67.828707 6.815762 59.333675
67.603491 6.815762 58.020204
67.159534 6.815762 56.763683
66.509612 6.815762 55.600271
65.672420 6.815762 54.563422
64.672045 6.815762 53.682983
63.537255 6.815762 52.984267
62.300712 6.815762 52.487381
60.997978 6.815762 52.206624
59.666537 6.815762 52.150063
58.344688 6.815762 52.319333
57.070460 6.815762 52.709561
55.880509 6.815762 53.309523
54.809067 6.815762 54.101955
53.886957 6.815762 55.064064
53.140711 6.815762 56.168173
52.591797 6.815762 57.382517
52.255999 6.815762 58.672156
52.142981 6.815762 59.999999
53.614557 5.295262 61.094895
53.891446 5.295262 62.158287
54.344062 5.295262 63.159592
54.959394 5.295262 64.070009
55.719730 5.295262 64.863324
56.603208 5.295262 65.516740
57.584401 5.295262 66.011451
58.635086 5.295262 66.333219
59.725035 5.295262 66.472791
60.822900 5.295262 66.426158
61.897092 5.295262 66.194646
62.916704 5.295262 65.784939
63.852407 5.295262 65.208800
64.677283 5.295262 64.482816
65.367609 5.295262 63.627869
65.903515 5.295262 62.668554
66.269584 5.295262 61.632473
66.455290 5.295262 60.549423
66.455290 5.295262 59.450574
66.269584 5.295262 58.367528
65.903515 5.295262 57.331443
65.367609 5.295262 56.372128
64.677283 5.295262 55.517182
63.852407 5.295262 54.791197
62.916704 5.295262 54.215062
61.897092 5.295262 53.805348
60.822900 5.295262 53.573839
59.725035 5.295262 53.527206
58.635086 5.295262 53.666778
57.584401 5.295262 53.988550
56.603208 5.295262 54.483257
55.719730 5.295262 55.136669
54.959394 5.295262 55.929992
54.344062 5.295262 56.840405
53.891446 5.295262 57.841711
53.614557 5.295262 58.905106
53.521369 5.295262 59.999999
54.745123 3.593475 60.901038
54.972984 3.593475 61.776154
55.345468 3.593475 62.600181
55.851847 3.593475 63.349396
56.477569 3.593475 64.002261
57.204619 3.593475 64.539984
58.012091 3.593475 64.947098
58.876745 3.593475 65.211900
59.773721 3.593475 65.326758
60.677204 3.593475 65.288380
61.561204 3.593475 65.097861
62.400293 3.593475 64.760692
63.170329 3.593475 64.286560
63.849159 3.593475 63.689120
64.417250 3.593475 62.985539
64.858273 3.593475 62.196076
65.159529 3.593475 61.343439
65.312356 3.593475 60.452148
65.312356 3.593475 59.547853
65.159529 3.593475 58.656562
64.858273 3.593475 57.803921
64.417250 3.593475 57.014458
63.849159 3.593475 56.310881
63.170329 3.593475 55.713437
62.400293 3.593475 55.239309
61.561204 3.593475 54.902133
60.677204 3.593475 54.711618
59.773721 3.593475 54.673236
58.876745 3.593475 54.788098
58.012091 3.593475 55.052899
57.204619 3.593475 55.460013
56.477569 3.593475 55.997740
55.851847 3.593475 56.650605
55.345468 3.593475 57.399821
54.972984 3.593475 58.223844
54.745123 3.593475 59.098963
54.668434 3.593475 59.999999
58.978274 0.234134 60.360998
58.931965 0.234134 60.183134
59.999999 0.000000 59.999999
59.053984 0.234134 60.528476
59.156902 0.234134 60.680751
59.284076 0.234134 60.813442
59.431847 0.234134 60.922734
59.595961 0.234134 61.005477
59.771702 0.234134 61.059300
59.954010 0.234134 61.082643
60.137637 0.234134 61.074845
60.317308 0.234134 61.036121
60.487852 0.234134 60.967591
60.644355 0.234134 60.871229
60.782325 0.234134 60.749799
60.897790 0.234134 60.606800
60.987424 0.234134 60.446344
61.048653 0.234134 60.273048
61.079714 0.234134 60.091898
61.079714 0.234134 59.908099
61.048653 0.234134 59.726950
60.987424 0.234134 59.553653
60.897790 0.234134 59.393201
60.782325 0.234134 59.250198
60.644355 0.234134 59.128769
60.487852 0.234134 59.032407
60.317308 0.234134 58.963876
60.137637 0.234134 58.925156
59.954010 0.234134 58.917355
59.771702 0.234134 58.940701
59.595961 0.234134 58.994517
59.431847 0.234134 59.077263
59.284076 0.234134 59.186555
59.156902 0.234134 59.319247
59.053984 0.234134 59.471522
58.978274 0.234134 59.638999
58.931965 0.234134 59.816863
58.916379 0.234134 59.999999
55.359818 2.676904 60.795639
55.561025 2.676904 61.568391
55.889934 2.676904 62.296018
56.337081 2.676904 62.957592
56.889605 2.676904 63.534088
